# .PCD v0.7 - Point Cloud Data file format
VERSION 0.7
FIELDS x y z
SIZE 4 4 4
TYPE F F F
COUNT 1 1 1
WIDTH 516
HEIGHT 1
VIEWPOINT 0 0 0 1 0 0 0
POINTS 516
DATA ascii
0.0040000002 0.57200003 1.7530001
0.026000001 0.55600005 1.766
0.026000001 0.565 1.7690001
0.0060000001 0.57050002 1.7610002
0 0.60400003 1.7670001
0.026000001 0.54700005 1.7730001
0.011000001 0.551 1.7750001
0.0060000001 0.57300001 1.7752502
0.011000001 0.57200003 1.779
0.022000002 0.57200003 1.7715001
0.0080000004 0.583 1.7770001
0.011000001 0.583 1.7760001
-0.003 0.59850001 1.7750001
0 0.59800005 1.774
-0.003 0.60500002 1.7770001
0.0040000002 0.60800004 1.7745001
0.051000003 0.48200002 1.7860001
0.033 0.51900005 1.7820001
0.026000001 0.546 1.7810001
0.011000001 0.55800003 1.7850001
0.0066666664 0.56433338 1.7836667
0.013 0.56500006 1.7870001
0.0040000002 0.57550001 1.7825
0.0040000002 0.58466667 1.7853335
-0.003 0.60400003 1.7855
0.0020000001 0.64350003 1.784
0.011000001 0.64900005 1.7830001
-0.0050000004 0.65425003 1.7832501
0.0026666669 0.65333337 1.7836667
0 0.67400002 1.7860001
-0.026000001 0.69750005 1.7870002
-0.014666666 0.69100004 1.7833333
0.040000003 0.45700002 1.7950001
0.037 0.46600002 1.7980001
0.022000002 0.49500003 1.7920001
0.033 0.50300002 1.7930001
0.019000001 0.51600003 1.7990001
0.022000002 0.51600003 1.7980001
0.015000001 0.52500004 1.7900001
0.022000002 0.52000004 1.7990001
0.017666668 0.53466672 1.7966667
0.015000001 0.54600006 1.7953334
0.0080000004 0.56800002 1.7900001
0.07 0.41700003 1.8010001
0.033 0.48700002 1.8040001
0.019000001 0.51700002 1.802
0.025 0.5165 1.8027501
0.019000001 0.52683336 1.8025001
0.022000002 0.52466673 1.802
0.066 0.41600001 1.8100001
0.045166668 0.4621667 1.8151668
0.024199998 0.51330006 1.8153002
0.019000001 0.52650005 1.8145001
0.47100002 -0.57900006 1.8270001
0.13900001 0.22900002 1.825
0.036090907 0.48518184 1.825
0.019000001 0.52600002 1.8265002
0.085000001 0.36250001 1.8355001
0.075363643 0.38527277 1.8375454
0.045888893 0.46422228 1.8355556
0.030000001 0.50200003 1.8330001
0.015000001 0.546 1.8330001
0.48200002 -0.59300005 1.8445001
0.13350001 0.2385 1.8460001
0.13150001 0.24450001 1.8485
0.086333334 0.35616669 1.8453335
0.083714291 0.36500001 1.8467143
0.083600014 0.3743 1.8449001
0.082000002 0.38200003 1.8470001
0.064043485 0.40447831 1.8449568
0.054181818 0.42418185 1.8444546
0.049000006 0.44500002 1.842
0.045000002 0.45400003 1.8423334
0.032666668 0.49200001 1.8433334
0.023000002 0.509 1.8440001
0.019000001 0.51600003 1.84
0.012 0.56200004 1.848
0.47400004 -0.58700001 1.853
0.13700001 0.23500001 1.8500001
0.1068 0.30460003 1.8560002
0.096400008 0.31620002 1.8580002
0.10233334 0.31366667 1.8550001
0.105 0.32450002 1.8565001
0.093000002 0.33464703 1.8558235
0.091428578 0.34385714 1.8548572
0.084333338 0.35408333 1.8556668
0.091166668 0.354 1.8533335
0.074636362 0.36413634 1.8543636
0.083222233 0.36388892 1.8542222
0.074272722 0.37563637 1.8517274
0.083500005 0.37516668 1.8513335
0.064800009 0.3842667 1.8547332
0.074199997 0.3854 1.8522002
0.076714285 0.39485714 1.8532859
0.056500003 0.40650001 1.8535001
0.063200004 0.40480003 1.8532002
0.073333338 0.40411112 1.8526669
0.055000003 0.41675001 1.8575001
0.064307697 0.41484621 1.8536155
0.074000001 0.41300002 1.8552002
0.054666668 0.42449999 1.8518335
0.066285722 0.42342857 1.854143
0.045000002 0.43100002 1.858
0.053000003 0.435 1.8515
0.063428573 0.4344286 1.8525715
0.066 0.44250003 1.858
0.057000004 0.45450002 1.8520001
0.038000003 0.46500003 1.8570001
0.044500001 0.46325001 1.85525
0.032666668 0.49500003 1.8536668
0.50700003 -0.64100003 1.8610001
0.48800004 -0.59500003 1.8620001
0.47600001 -0.58900005 1.8600001
0.13100001 0.22600001 1.8640001
0.12400001 0.24483334 1.864
0.13100001 0.24400002 1.8620001
0.12200001 0.25450003 1.8640001
0.11333334 0.264 1.8676667
0.12 0.26300001 1.8600001
0.11366668 0.27366665 1.8663334
0.10566666 0.28441665 1.867
0.11300001 0.28600001 1.8660001
0.10508332 0.2951667 1.86725
0.11366668 0.29133335 1.8650001
0.093928568 0.3049286 1.8656428
0.10471428 0.3049286 1.8649286
0.11366668 0.30533335 1.863
0.093384616 0.3146154 1.8650002
0.10300001 0.31400001 1.8647779
0.084904753 0.3250953 1.8654287
0.092875019 0.32425001 1.8643752
0.10236363 0.3239091 1.8645457
0.084625006 0.33462501 1.8632503
0.094000004 0.33394444 1.8635
0.10166667 0.336 1.8660001
0.0845 0.34650001 1.8615
0.09480001 0.34380001 1.8666
0.075374998 0.35462505 1.8637501
0.084444448 0.35422224 1.861778
0.0917143 0.35314292 1.8642857
0.065333337 0.36366668 1.8648335
0.07644444 0.36366665 1.8620001
0.085375004 0.36325002 1.8627501
0.090000004 0.36300001 1.8650001
0.066 0.37150002 1.862
0.085000008 0.37050003 1.8665001
0.062000003 0.38700002 1.8625001
0.083000004 0.38900003 1.8600001
0.061000004 0.39400002 1.8670001
0.085000008 0.39100003 1.8640001
0.057000004 0.40650001 1.865
0.060500003 0.40450001 1.8630002
0.079000004 0.40400001 1.8600001
0.055000003 0.41350001 1.8610001
0.064000003 0.41400003 1.8615
0.072000004 0.41600001 1.8620001
0.07333333 0.42233333 1.862
0.049000002 0.43300003 1.8670001
0.068000004 0.43900001 1.8610001
0.068000004 0.44700003 1.863
0.126 0.206 1.878
0.1354 0.20580001 1.8778
0.12400001 0.21600001 1.8790001
0.14300001 0.222 1.8770001
0.11700001 0.23900001 1.8790001
0.106 0.25572729 1.8751817
0.12337501 0.25237501 1.8761251
0.10547619 0.27438095 1.8735716
0.11357145 0.27428573 1.8725713
0.094714291 0.28400004 1.8738573
0.10470589 0.28411767 1.8740003
0.11357144 0.28442857 1.8745716
0.087000005 0.29633334 1.8740001
0.095043495 0.29469562 1.8737828
0.10454167 0.29470834 1.8723747
0.11287501 0.29587501 1.8755
0.086200014 0.30460003 1.8724
0.093842112 0.30394739 1.8732105
0.10407144 0.30471429 1.8745003
0.11260001 0.30500001 1.8766
0.077 0.31600001 1.8770002
0.085133336 0.31493336 1.8722669
0.094080001 0.31371999 1.8727601
0.10453334 0.31446674 1.8746667
0.077500001 0.324 1.8750001
0.084000006 0.32344446 1.8735555
0.097200014 0.32480001 1.8716002
0.10266668 0.32383335 1.8726668
0.076333337 0.33283338 1.8748335
0.098000005 0.333 1.8700001
0.068000004 0.34500003 1.8740001
0.094666667 0.34633335 1.8743334
0.068000004 0.35600001 1.8715
0.072000004 0.35200003 1.8710001
0.092500001 0.35400003 1.8710001
0.064000003 0.36600003 1.8715
0.057000004 0.39600003 1.8770001
0.069000006 0.44100001 1.8710001
0.223 0.051000003 1.8870001
0.16600001 0.112 1.8890001
0.162 0.134 1.881
0.15400001 0.145 1.8833333
0.15100001 0.15300001 1.8870001
0.14255555 0.17422223 1.8853334
0.147 0.20900001 1.8800001
0.12509525 0.21423809 1.8853812
0.155 0.21300001 1.886
0.12488464 0.22446156 1.8850386
0.12494446 0.23450004 1.884667
0.134 0.23200001 1.8860002
0.11359093 0.24400002 1.8852276
0.12435716 0.24221429 1.8847142
0.11215385 0.25492308 1.8855386
0.12100001 0.25600001 1.8843335
0.10455557 0.26511115 1.8823335
0.11287501 0.26450002 1.8826252
0.095166676 0.27500001 1.883
0.10360001 0.27160001 1.8840001
0.11400001 0.27262503 1.8846252
0.094285727 0.28357145 1.8831431
0.10333335 0.28766668 1.8823334
0.11320002 0.28500003 1.8837
0.087000005 0.296 1.8800001
0.10600001 0.29400003 1.8800001
0.11266667 0.29350004 1.8831667
0.087000005 0.30100003 1.8840001
0.091000006 0.30400002 1.881
0.112 0.301 1.8845
0.080750003 0.31350002 1.8820001
0.098000005 0.31550002 1.8805001
0.10600001 0.31600001 1.8835001
0.11000001 0.31600001 1.886
0.074000001 0.32475001 1.8852502
0.080000006 0.32500002 1.8843335
0.10600001 0.324 1.8880001
0.11000001 0.32100001 1.8880001
0.072000004 0.33233336 1.8813334
0.099000007 0.34450001 1.8820001
0.099000007 0.35250002 1.8845
0.068000004 0.36900002 1.8800001
0.22700001 0.048 1.8920001
0.16440001 0.1028 1.8954
0.1416 0.17460001 1.8928001
0.13444445 0.19477779 1.8938887
0.14066668 0.20433335 1.8966669
0.12473334 0.21460001 1.8916003
0.16000001 0.21900001 1.899
0.134 0.22316669 1.8945001
0.14399999 0.22700001 1.8925002
0.156 0.22200002 1.8950001
0.11540002 0.2318 1.8932002
0.12380002 0.23500001 1.8920002
0.11400001 0.24400002 1.8900001
0.12419999 0.2447 1.8927002
0.10540001 0.25440001 1.8918003
0.11666667 0.25366667 1.8923334
0.12266668 0.25333333 1.8920001
0.10560001 0.2638 1.8942
0.112 0.26425004 1.8917501
0.11600001 0.28750002 1.8955001
0.11000001 0.30200002 1.8900001
0.073000006 0.32600001 1.8970001
0.073000006 0.33000001 1.8970001
0.36500001 -0.32700002 1.909
0.29500002 -0.18100001 1.9070001
0.28 -0.16600001 1.9080001
0.22450002 -0.037 1.9035001
0.18366666 0.054333333 1.9050001
0.20600002 0.060000002 1.909
0.16214287 0.12514287 1.9045715
0.18300001 0.12800001 1.909
0.19457145 0.12128572 1.9047145
0.15344445 0.13577779 1.9054445
0.16353334 0.13580003 1.9048002
0.15442859 0.14471428 1.9051429
0.16133334 0.14416668 1.9048332
0.153625 0.15381251 1.9046251
0.14466667 0.16450001 1.9020001
0.1525 0.164 1.9045
0.1455 0.17283334 1.9050002
0.13600001 0.18550001 1.9027501
0.1424 0.1842 1.9030001
0.14300001 0.1945 1.9075
0.13516667 0.20316668 1.9031668
0.141 0.2 1.9070001
0.13500001 0.21150002 1.9035001
0.14442858 0.21757142 1.9038571
0.15200001 0.215 1.9000001
0.13800001 0.22400001 1.9080001
0.145 0.223 1.9041668
0.15300001 0.22133334 1.9073334
0.11800001 0.27700001 1.9020001
0.077000007 0.31500003 1.9000001
0.39675 -0.39575002 1.9127501
0.37700003 -0.35600001 1.9175
0.354 -0.324 1.9180001
0.24100001 -0.085000001 1.914
0.23300001 -0.066 1.914
0.20300001 0.022000002 1.9160001
0.1839231 0.074076913 1.9130771
0.19412503 0.074499995 1.9141252
0.18425 0.084750004 1.9161251
0.1734 0.095599994 1.9116001
0.18000001 0.090000004 1.9170001
0.17299999 0.10266668 1.9130001
0.18000001 0.10600001 1.9160001
0.16500002 0.11633334 1.9138335
0.17200001 0.11700001 1.9135001
0.18000001 0.11000001 1.9180001
0.19900002 0.11700001 1.9156667
0.16350001 0.12475001 1.9147502
0.17466669 0.12733334 1.9155
0.18533333 0.12608336 1.9149166
0.19491667 0.12400001 1.9160833
0.156 0.13266666 1.9121666
0.17457142 0.13371429 1.9167143
0.18380001 0.1322 1.9156001
0.16338462 0.14261538 1.9146924
0.15700001 0.15900001 1.9160001
0.149 0.16600001 1.9110001
0.155 0.16500001 1.9145001
0.142 0.178 1.9120001
0.13800001 0.185 1.9100001
0.14600001 0.18200001 1.9150001
0.142 0.19466667 1.9136667
0.14725 0.21425001 1.9120001
0.15233333 0.21433334 1.9150001
0.14600001 0.2265 1.9165001
0.15466668 0.223 1.9140002
0.123 0.28600001 1.9130001
0.39750004 -0.41400003 1.9225001
0.39800003 -0.40300003 1.9260001
0.25100002 -0.10699999 1.9275001
0.23200001 -0.06666667 1.9233335
0.22325 -0.034000002 1.9257501
0.23 -0.036000002 1.9200001
0.21900001 -0.017000001 1.9210001
0.20400001 0.022000002 1.9260001
0.21900001 0.029000001 1.9250001
0.21633334 0.053333331 1.9223334
0.18300001 0.062857151 1.9222858
0.1952 0.064800009 1.9244001
0.20328572 0.065714292 1.9268572
0.1855 0.074749999 1.9245001
0.19318184 0.074454546 1.9227275
0.20087501 0.073749997 1.924625
0.21200001 0.072000004 1.9250001
0.17500001 0.083000004 1.9225001
0.1852857 0.084714293 1.9255714
0.19325 0.083000004 1.9275
0.16700001 0.098000005 1.9220002
0.176 0.0955 1.9247501
0.1822 0.091800004 1.925
0.16533335 0.10466668 1.9243335
0.17300001 0.10200001 1.9200001
0.18450001 0.10400002 1.9250002
0.17300001 0.11400001 1.9230001
0.18525001 0.11750001 1.92375
0.19500001 0.11587501 1.9256251
0.16525002 0.124625 1.9243751
0.176 0.127 1.9245
0.18431251 0.12612499 1.9237499
0.16900001 0.133 1.9250001
0.17633332 0.13566668 1.9238335
0.18388888 0.13433334 1.9242224
0.192 0.133 1.9240001
0.17200001 0.14366667 1.9266667
0.163 0.15433334 1.9253334
0.14600001 0.19000001 1.9200001
0.15000001 0.19800001 1.9230001
0.39900002 -0.41600001 1.9300001
0.39500001 -0.40400001 1.9340001
0.37900001 -0.37200001 1.9360001
0.37800002 -0.36300001 1.9335001
0.38330001 -0.3558 1.9345001
0.39300001 -0.35833335 1.9353334
0.36900002 -0.34300002 1.932
0.37214285 -0.33742857 1.9357145
0.35350001 -0.31850001 1.9360001
0.36200002 -0.31900001 1.937
0.34100002 -0.29100001 1.9360001
0.208 0.045000002 1.9330001
0.21200001 0.049000002 1.9330001
0.22050002 0.045000002 1.9360001
0.20683335 0.054166671 1.9346668
0.21660002 0.053800005 1.9344002
0.22400001 0.057000004 1.9360001
0.20400001 0.063111112 1.9355556
0.2132 0.063200004 1.9328001
0.22000001 0.068000004 1.9335001
0.18766667 0.075666673 1.9313334
0.19600001 0.076500006 1.93225
0.20475 0.075000003 1.9330002
0.18740001 0.084600009 1.9328001
0.19533335 0.082666673 1.9337779
0.20340002 0.081200004 1.9366001
0.17200001 0.095000006 1.9325001
0.18377778 0.093222231 1.9343333
0.19425 0.095000006 1.9360001
0.19000001 0.10700001 1.9360001
0.17666666 0.11433334 1.9333334
0.18528572 0.11514287 1.9331429
0.17300001 0.14530769 1.9372306
0.18200001 0.142 1.9390001
0.162 0.15700001 1.932
0.1645 0.16100001 1.9360001
0.155 0.192 1.937
0.41800001 -0.41500002 1.9440001
0.40500003 -0.39600003 1.9420002
0.41300002 -0.39800003 1.9420002
0.39420003 -0.3854 1.9430002
0.40400001 -0.38500002 1.9456667
0.39300001 -0.37600002 1.9465001
0.37400001 -0.36100003 1.9450002
0.38540003 -0.3664 1.9452002
0.39366665 -0.36416671 1.9448334
0.37500003 -0.35200003 1.9420002
0.38600001 -0.3574 1.942
0.39166668 -0.35600004 1.9426666
0.36400002 -0.34100002 1.9490001
0.37100002 -0.33700001 1.9440001
0.347 -0.32000002 1.944
0.35450003 -0.32175002 1.9446251
0.33700001 -0.31200001 1.9443334
0.33711115 -0.30366668 1.9450002
0.33442861 -0.29435715 1.9443572
0.32462502 -0.26600003 1.94525
0.32500002 -0.24400002 1.9430001
0.33200002 -0.245 1.9480002
0.34150001 -0.24650002 1.9445001
0.30471429 -0.23471428 1.9431429
0.31424999 -0.23462501 1.9440001
0.30433333 -0.22399999 1.9438334
0.30150002 -0.21425001 1.9450002
0.29233333 -0.19566667 1.9473333
0.28500003 -0.18577778 1.9451112
0.29440001 -0.1842 1.9476001
0.30500001 -0.185 1.9480001
0.28300002 -0.17500001 1.9435
0.29300001 -0.177 1.9480001
0.17900001 0.125 1.944
0.18380001 0.1224 1.9414002
0.39750004 -0.39450002 1.957
0.39000002 -0.38300002 1.9530001
0.40300003 -0.38000003 1.9530001
0.41300002 -0.38600004 1.9535
0.384 -0.37300003 1.9535
0.39420003 -0.37440005 1.9518
0.36900002 -0.36200002 1.95
0.37350002 -0.36450002 1.9540001
0.39600003 -0.36300004 1.9530001
0.36600003 -0.35500002 1.9560001
0.3775 -0.35250002 1.9535
0.3856667 -0.35466671 1.9523335
0.39340001 -0.35680002 1.9542
0.36100003 -0.34200001 1.9530001
0.37325001 -0.34450001 1.9540001
0.38200003 -0.34300002 1.9590001
0.35600001 -0.33100003 1.9590001
0.36700001 -0.33400002 1.9525001
0.37450001 -0.33450001 1.9542501
0.34850001 -0.32550001 1.9535
0.35519999 -0.32590002 1.9549
0.36335716 -0.32457143 1.9540716
0.37300003 -0.33000001 1.9520001
0.35400003 -0.3162857 1.9524286
0.36166674 -0.31622225 1.9545557
0.33660001 -0.30460003 1.9533001
0.34450001 -0.30592862 1.9537144
0.3538 -0.30739999 1.9540001
0.33680001 -0.2942 1.9540001
0.34257147 -0.29514289 1.9548571
0.3348572 -0.28514287 1.9522859
0.34075001 -0.28525001 1.9532502
0.32560006 -0.2744 1.9539001
0.32310003 -0.26440004 1.9543002
0.33200002 -0.26900002 1.955
0.32500002 -0.24700001 1.9525001
0.33340001 -0.2428 1.9530001
0.34350002 -0.24600001 1.9560001
0.31320003 -0.23540001 1.9536002
0.32700002 -0.23800001 1.9560001
0.30433333 -0.22666669 1.9546667
0.31600001 -0.23 1.9580001
0.30800003 -0.21800001 1.9590001
0.303 -0.19000001 1.955
0.29333332 -0.18466668 1.9556667
0.41700003 -0.39400002 1.9610001
0.40900001 -0.37600002 1.9650002
0.40800002 -0.36900002 1.9630001
0.36700001 -0.34800002 1.9620001
0.37200001 -0.34100002 1.9690001
0.35500002 -0.33200002 1.9650002
0.36300001 -0.33200002 1.9640001
0.37466669 -0.33300003 1.9626669
0.35500002 -0.324 1.9665
0.36300001 -0.32000002 1.9660001
0.34450001 -0.31150001 1.9640001
0.3552857 -0.31285715 1.9634287
0.36600003 -0.31900001 1.96
0.34900001 -0.30700001 1.96
0.35250002 -0.3075 1.9655001
0.33700001 -0.29275 1.9615002
0.35100001 -0.296 1.9680001
0.34400001 -0.28550002 1.9660001
0.33200002 -0.27300003 1.9675
0.34100002 -0.27800003 1.96
0.333 -0.26700002 1.9630001
0.3265 -0.24383335 1.9628334
0.33500001 -0.24650002 1.9630001
0.32550001 -0.23900001 1.9680002
0.31200001 -0.23 1.9615
0.36450002 -0.33750004 1.9725001
0.36300001 -0.31600001 1.9746667
0.35400003 -0.30300003 1.9750001
0.36000001 -0.30900002 1.9750001
